ply
format ascii 1.0
element face 0
property list uchar int vertex_indices
element vertex 280
property float x
property float y
property float z
property uchar diffuse_red
property uchar diffuse_green
property uchar diffuse_blue
end_header
5.794279e-002 -8.389567e-001 3.366258e+000 12 6 135
2.034888e-001 -7.642058e-001 3.346734e+000 166 142 121
-1.753364e-001 -6.536959e-001 3.284864e+000 130 250 7
6.431878e-001 -6.250422e-001 3.407493e+000 241 179 222
-2.893278e-001 -3.444467e-001 2.716854e+000 62 231 64
-3.237864e-001 -3.820636e-001 3.049777e+000 42 184 157
-4.284460e-001 -3.580667e-001 2.991863e+000 242 221 138
-4.867312e-001 -4.025316e-001 3.406793e+000 166 158 192
-5.209140e-002 -3.245256e-001 3.014597e+000 107 168 228
-4.951982e-002 -3.078895e-001 2.847121e+000 70 13 97
-9.656881e-002 -2.961265e-001 2.819269e+000 28 183 174
-1.077711e-001 -3.294778e-001 3.169471e+000 232 142 141
-1.017980e-001 -3.116439e-001 2.983786e+000 234 53 225
-2.139176e-001 -3.052859e-001 3.106754e+000 31 211 228
-2.430980e-001 -3.443395e-001 3.543711e+000 215 124 67
-2.274821e-001 -3.233224e-001 3.310445e+000 54 55 154
-3.653010e-001 -3.166845e-001 3.477881e+000 113 89 10
-4.571889e-001 -3.238860e-001 3.702955e+000 176 195 233
-5.366521e-001 -3.761263e-001 4.355835e+000 9 224 227
-4.935743e-001 -3.476301e-001 4.002297e+000 182 87 25
-5.619216e-001 -3.316148e-001 3.959812e+000 21 200 108
-6.687742e-001 -3.901035e-001 4.721604e+000 60 200 160
-6.105007e-001 -3.580095e-001 4.306523e+000 81 125 106
-6.878438e-001 -3.408341e-001 4.268685e+000 193 19 13
-8.324907e-001 -4.073353e-001 5.174908e+000 129 111 114
-7.530249e-001 -3.705814e-001 4.677408e+000 246 248 183
-1.017079e+000 -3.634249e-001 5.077290e+000 217 70 182
-1.287654e+000 -4.533412e-001 6.436662e+000 175 147 111
-1.136052e+000 -4.026829e-001 5.675371e+000 118 255 59
9.066706e-001 -1.886048e-001 3.544881e+000 238 210 160
9.066706e-001 -1.886048e-001 3.544881e+000 116 43 160
9.121401e-001 -1.171350e-001 3.562371e+000 228 219 160
-2.874689e-001 -7.092167e-002 3.047399e+000 130 183 58
-5.513387e-001 4.424009e-002 2.889003e+000 62 185 36
7.646970e-002 1.067523e-001 2.957922e+000 255 12 58
4.622955e-002 1.344025e-001 2.945316e+000 27 236 18
3.235406e-002 1.636878e-001 2.938783e+000 4 113 15
1.159870e-001 2.130365e-001 2.969070e+000 117 176 40
-1.729434e-002 2.445458e-001 2.915133e+000 245 227 74
-4.965634e-001 3.120724e-001 2.902330e+000 241 27 49
-3.547815e-001 3.707469e-001 2.907635e+000 95 239 165
-3.444953e-001 3.951628e-001 2.905262e+000 67 87 190
-3.303556e-001 6.582523e-001 2.899605e+000 82 45 5
1.366160e-001 6.541113e-001 2.824839e+000 180 176 151
1.133301e-001 6.634981e-001 2.785553e+000 125 102 140
2.826151e-001 6.624341e-001 2.781804e+000 102 38 110
1.131012e-001 6.935285e-001 2.735089e+000 173 153 16
7.209481e-001 7.065293e-001 2.783394e+000 108 194 112
-2.233597e-001 6.985572e-001 2.751456e+000 135 75 152
6.762260e-001 7.292399e-001 2.747750e+000 212 232 198
4.103627e-001 -8.338099e-001 3.396578e+000 144 243 179
3.078004e-001 -3.936113e-001 3.271622e+000 42 81 43
3.078314e-001 -3.933334e-001 3.271333e+000 226 93 186
-4.858042e-001 -2.759930e-001 3.164277e+000 41 121 31
-3.842459e-001 -2.233218e-001 2.494190e+000 26 82 95
-8.112227e-001 -2.865126e-001 3.821753e+000 144 164 97
-6.109325e-001 -2.220045e-001 2.870827e+000 108 242 29
-4.429838e-001 -3.645345e-002 2.954473e+000 82 195 177
-6.098069e-001 8.129564e-003 2.857897e+000 216 128 98
-5.997865e-001 5.489293e-002 2.861441e+000 160 228 10
-3.332946e-001 7.203862e-002 2.962716e+000 247 134 132
-3.332946e-001 7.203862e-002 2.962716e+000 122 245 217
-3.306866e-001 7.165813e-002 2.939952e+000 223 169 232
-5.477496e-002 1.561094e-001 2.905195e+000 201 249 221
-4.523907e-002 7.887969e-002 1.992381e+000 6 129 226
-3.778415e-003 1.969535e-001 2.923677e+000 53 6 169
-3.098938e-002 3.243527e-001 2.910226e+000 46 71 53
1.070855e+000 4.017573e-001 3.571617e+000 47 164 7
1.098707e+000 5.894794e-001 3.112044e+000 198 71 59
1.648290e-001 6.902093e-001 2.735362e+000 235 105 176
6.841127e-001 7.058479e-001 2.766393e+000 66 76 32
-1.880830e-001 7.553218e-001 2.623891e+000 57 222 16
1.177522e-001 -7.121719e-001 3.236244e+000 78 133 185
6.683052e-001 -5.332859e-001 3.399909e+000 134 17 11
-4.646421e-001 -4.435330e-001 3.423622e+000 249 145 210
4.318813e-001 -3.885184e-001 3.241092e+000 96 111 9
-5.391885e-001 -8.851300e-003 2.893991e+000 27 185 17
-4.475272e-001 6.184930e-002 2.878532e+000 94 168 172
1.793575e-001 1.661633e-001 2.997453e+000 171 126 192
-3.766277e-001 2.064779e-001 2.897916e+000 54 209 249
2.424083e-001 5.333177e-001 3.004670e+000 198 2 24
-3.403419e-001 5.660504e-001 2.893698e+000 99 11 232
-2.460243e-001 5.726695e-001 2.946531e+000 134 251 230
1.454730e-001 5.826502e-001 2.836172e+000 181 70 137
5.027818e-001 6.464602e-001 2.810910e+000 7 42 160
3.748123e-001 6.675167e-001 2.785588e+000 141 8 71
3.881247e-002 7.001972e-001 2.738534e+000 41 149 69
2.691768e-001 -8.093515e-001 3.427019e+000 201 55 239
-1.531654e-001 -4.832761e-001 3.306098e+000 238 241 152
7.113456e-001 -1.463658e-001 3.443514e+000 128 90 135
-5.345571e-003 2.414007e-002 2.933356e+000 132 244 158
-2.054590e-002 7.489928e-002 2.926753e+000 31 207 24
-5.081847e-002 7.884105e-002 2.891933e+000 95 155 99
-3.965096e-001 8.835445e-002 2.883491e+000 131 228 241
1.066177e-001 2.595692e-001 2.953037e+000 238 124 111
-2.926290e-001 3.531693e-001 2.935150e+000 46 216 24
-2.926290e-001 3.531693e-001 2.935150e+000 206 187 120
4.275019e-001 5.891628e-001 2.878591e+000 163 45 223
-8.610524e-002 8.239707e-001 2.531153e+000 135 65 46
6.872981e-002 -8.328562e-001 3.356652e+000 134 213 213
-1.047456e-001 -7.694291e-001 3.316329e+000 60 65 58
1.686442e-001 -6.862129e-001 3.238879e+000 34 28 141
3.247871e-001 -7.540092e-001 3.430349e+000 208 49 196
1.227562e-001 -5.934685e-001 3.343885e+000 88 95 242
1.467293e-001 -1.974753e-001 3.316842e+000 113 193 25
-5.045721e-001 3.457664e-002 2.885662e+000 37 244 32
-5.045721e-001 3.457664e-002 2.885662e+000 136 123 76
1.290991e-001 1.129590e-001 2.964965e+000 70 196 249
-3.240033e-001 2.038948e-001 2.927895e+000 122 6 233
-3.367007e-001 2.993865e-001 2.909077e+000 158 145 244
-3.367007e-001 2.993865e-001 2.909077e+000 200 69 13
-3.271848e-001 4.971569e-001 2.913100e+000 108 221 205
-1.175096e-001 -5.639337e-001 3.274915e+000 101 214 130
4.325810e-001 -4.767114e-001 3.256658e+000 118 228 41
4.942346e-002 3.540550e-001 2.947243e+000 97 142 180
-4.797193e-001 5.554168e-001 2.893732e+000 174 47 78
3.982877e-001 -6.280365e-001 3.360275e+000 60 7 152
2.140734e-001 6.345415e-001 2.858442e+000 255 172 111
-5.943162e-002 2.512363e-001 2.955352e+000 117 96 213
-1.630659e-001 5.198677e-001 2.960444e+000 67 69 76
-1.716522e-001 4.922861e-001 2.951119e+000 63 194 219
-2.226382e-001 3.327287e-001 2.932350e+000 152 117 17
1.397433e+000 -8.771839e-001 3.448289e+000 84 59 164
1.354696e+000 -8.544049e-001 3.454080e+000 129 76 177
1.282668e+000 -5.521409e-001 3.445736e+000 100 21 82
1.501260e+000 -5.028756e-001 3.396029e+000 161 214 63
1.501260e+000 -5.028756e-001 3.396029e+000 152 189 239
3.116844e-001 -3.384324e-001 3.523757e+000 235 239 233
3.241517e-001 -2.879312e-001 3.519622e+000 19 190 243
3.861787e-001 -2.911761e-001 3.517293e+000 160 230 160
3.861787e-001 -2.911761e-001 3.517293e+000 131 148 95
4.707789e-001 -2.700107e-001 3.510551e+000 120 117 149
4.920126e-001 -2.457766e-001 3.506416e+000 30 54 135
5.596150e-001 -2.338240e-001 3.499809e+000 180 255 23
5.829298e-001 -8.149229e-002 3.473739e+000 152 168 239
6.593269e-001 -5.907417e-002 3.461022e+000 36 24 113
1.393568e+000 4.295045e-001 3.149575e+000 254 253 189
1.628933e-001 5.375276e-001 3.348841e+000 59 182 212
-4.073549e-001 -1.028338e+000 3.356575e+000 119 132 171
6.529285e-001 -9.437752e-001 3.498347e+000 188 167 129
3.566257e-001 -8.957764e-001 3.497952e+000 84 36 140
1.135078e+000 -8.350670e-001 3.481198e+000 190 25 158
1.484470e+000 -3.950578e-001 3.381387e+000 253 6 173
-5.591702e-001 -3.829749e-001 3.489308e+000 230 94 130
4.002666e-001 -3.733646e-001 3.522888e+000 158 31 205
4.002666e-001 -3.733646e-001 3.522888e+000 36 43 95
1.475904e+000 -3.616051e-001 3.376981e+000 156 71 85
3.644107e-001 -3.685371e-001 3.523920e+000 110 4 143
8.749384e-001 -3.625036e-001 3.483843e+000 57 203 23
8.421090e-001 -3.515220e-001 3.486431e+000 23 156 240
8.421090e-001 -3.515220e-001 3.486431e+000 247 203 200
2.216627e-001 -3.362239e-001 3.525627e+000 215 70 18
2.819034e-001 -2.619437e-001 3.518879e+000 151 189 221
4.397025e-001 -2.561758e-001 3.510972e+000 177 205 38
4.173471e-001 -2.288013e-001 3.509234e+000 193 236 170
2.107207e-001 -1.967645e-001 3.514839e+000 33 82 237
1.784873e-001 -1.680415e-001 3.512661e+000 192 205 198
5.375158e-001 -1.520221e-001 3.490023e+000 106 3 28
2.840580e-001 -1.384156e-001 3.505090e+000 214 131 31
-4.379364e-001 -4.711296e-002 3.493107e+000 215 183 233
-2.627262e-001 6.186926e-003 3.493169e+000 14 227 76
-2.453576e-001 3.672564e-002 3.489279e+000 69 233 194
1.282759e+000 3.443222e-001 3.218323e+000 154 216 254
1.198909e+000 4.633181e-001 3.192619e+000 92 124 94
-9.837981e-002 5.536244e-001 3.361366e+000 36 0 152
-5.398150e-002 6.733299e-001 3.315611e+000 57 75 166
-8.960317e-002 7.025675e-001 3.306557e+000 145 203 87
-3.332832e-002 7.031117e-001 3.302607e+000 119 127 36
1.404780e+000 -9.148183e-001 3.447699e+000 47 143 156
1.164542e+000 -8.792910e-001 3.477540e+000 221 16 1
1.007789e+000 -7.883546e-001 3.493909e+000 63 67 40
1.007789e+000 -7.883546e-001 3.493909e+000 27 15 185
-5.638434e-001 -4.396794e-001 3.484193e+000 96 236 112
8.870618e-001 -4.056412e-001 3.487367e+000 87 121 4
4.602965e-001 -4.017967e-001 3.522019e+000 66 215 90
-3.630145e-001 -3.939914e-001 3.506663e+000 123 203 178
-3.525666e-001 -3.228323e-001 3.509458e+000 168 53 241
3.258964e-001 -2.649829e-001 3.517535e+000 134 152 99
2.361893e-001 -2.599313e-001 3.520074e+000 173 187 1
1.004910e+000 5.969571e-001 3.185008e+000 77 188 102
2.791045e-001 6.295967e-001 3.302510e+000 182 80 152
1.700421e-001 6.534611e-001 3.304875e+000 109 18 34
5.574178e-001 -1.124511e+000 3.461496e+000 166 237 212
2.468541e-001 -1.044881e+000 3.456974e+000 94 177 216
1.294751e-001 -9.271762e-001 3.475342e+000 45 60 151
2.180747e-001 -4.185607e-001 3.528743e+000 227 24 159
1.535560e-001 -4.094188e-001 3.528560e+000 66 159 234
-1.886173e-001 2.423475e-001 3.451588e+000 86 218 229
-2.619661e-001 2.708721e-001 3.445743e+000 42 155 57
5.472976e-001 5.848747e-001 3.283418e+000 120 162 224
8.621035e-002 6.537035e-001 3.312567e+000 160 230 182
2.247640e-001 -9.648287e-001 3.475256e+000 204 168 175
1.170862e+000 -7.710154e-001 3.476726e+000 245 128 123
-5.166735e-001 -8.525210e-001 3.404330e+000 169 238 30
2.259343e-001 -8.726788e-001 3.494485e+000 67 163 69
5.078850e-001 -8.363222e-001 3.510611e+000 140 227 73
-2.159904e-001 -2.607233e-001 3.516372e+000 6 117 230
3.024639e-001 -4.425275e-002 3.489912e+000 72 56 145
1.127015e+000 2.795204e-001 3.283405e+000 180 178 182
1.160437e+000 -1.012805e+000 4.215694e+000 39 12 163
1.119603e+000 -9.850667e-001 4.210230e+000 58 208 174
1.092501e+000 -6.778169e-001 4.256809e+000 37 187 125
1.340433e+000 -6.592132e-001 4.328944e+000 88 81 249
1.340433e+000 -6.592132e-001 4.328944e+000 187 244 183
1.300458e-001 -3.421302e-001 3.961597e+000 86 54 16
1.485433e-001 -2.916555e-001 3.965085e+000 0 231 124
2.094867e-001 -3.017395e-001 3.986666e+000 142 210 203
2.094867e-001 -3.017395e-001 3.986666e+000 4 157 244
2.965050e-001 -2.892963e-001 4.015002e+000 187 111 232
3.210951e-001 -2.666939e-001 4.021312e+000 179 227 13
3.908264e-001 -2.619121e-001 4.043562e+000 13 132 240
4.381372e-001 -1.067313e-001 4.039037e+000 163 80 234
5.203181e-001 -9.177106e-002 4.061875e+000 107 108 145
1.448046e+000 3.526706e-001 4.162470e+000 154 69 93
1.342373e-001 5.727739e-001 3.735409e+000 123 222 179
-6.118290e-001 -9.908145e-001 3.596815e+000 173 255 55
4.145381e-001 -9.851936e-001 3.970422e+000 60 149 0
1.311051e-001 -9.098306e-001 3.895861e+000 70 15 85
8.976552e-001 -9.367733e-001 4.150486e+000 80 236 155
1.344606e+000 -5.457387e-001 4.331856e+000 119 220 177
-7.121842e-001 -2.998993e-001 3.632245e+000 90 87 35
2.133148e-001 -3.876089e-001 3.991858e+000 98 237 227
2.133148e-001 -3.876089e-001 3.991858e+000 237 254 110
1.342246e+000 -5.097280e-001 4.330428e+000 160 57 212
1.784545e-001 -3.787260e-001 3.979687e+000 2 238 119
6.942538e-001 -4.314154e-001 4.147036e+000 229 173 140
6.619804e-001 -4.161369e-001 4.136938e+000 247 143 107
6.619804e-001 -4.161369e-001 4.136938e+000 94 162 109
4.198417e-002 -3.301949e-001 3.930018e+000 124 110 232
1.102215e-001 -2.604116e-001 3.949343e+000 121 255 50
2.673433e-001 -2.716210e-001 4.003924e+000 249 115 194
2.487989e-001 -2.409801e-001 3.994993e+000 13 56 135
4.889928e-002 -1.858845e-001 3.920126e+000 89 23 236
2.126321e-002 -1.530035e-001 3.906096e+000 42 109 33
3.807032e-001 -1.748928e-001 4.030776e+000 57 69 87
1.292929e-001 -1.335762e-001 3.941409e+000 244 80 149
-5.504579e-001 3.096759e-002 3.649708e+000 237 218 226
-3.774300e-001 6.863957e-002 3.712988e+000 81 156 96
-3.560691e-001 9.799824e-002 3.714489e+000 218 14 184
1.291944e+000 2.705538e-001 4.163342e+000 89 75 225
1.226550e+000 4.081628e-001 4.097953e+000 15 38 167
-1.171417e-001 6.079426e-001 3.628264e+000 195 196 53
-4.721371e-002 7.254755e-001 3.598255e+000 51 57 91
-7.467969e-002 7.570517e-001 3.571737e+000 200 183 52
-2.020152e-002 7.541684e-001 3.593681e+000 16 248 122
1.162282e+000 -1.049275e+000 4.204826e+000 53 109 249
9.221579e-001 -9.828362e-001 4.145105e+000 109 182 27
7.747383e-001 -8.754718e-001 4.125970e+000 159 167 198
7.747383e-001 -8.754718e-001 4.125970e+000 249 33 17
-7.236213e-001 -3.579390e-001 3.631412e+000 243 107 30
7.003773e-001 -4.771757e-001 4.149225e+000 99 108 245
2.694637e-001 -4.233689e-001 4.011432e+000 221 79 103
-5.274197e-001 -3.300300e-001 3.711839e+000 8 217 251
-5.090644e-001 -2.580144e-001 3.713788e+000 193 27 125
1.532100e-001 -2.682679e-001 3.964916e+000 181 228 254
6.555434e-002 -2.534648e-001 3.933050e+000 44 227 238
1.040224e+000 5.695499e-001 3.989740e+000 107 132 56
2.718384e-001 6.588076e-001 3.742149e+000 16 223 228
1.679702e-001 6.907522e-001 3.692333e+000 46 51 167
3.196741e-001 -1.147434e+000 3.864694e+000 43 176 226
2.452322e-002 -1.047239e+000 3.807199e+000 62 195 22
-8.785888e-002 -9.213292e-001 3.813468e+000 100 214 223
2.934111e-002 -4.141355e-001 3.927986e+000 87 40 53
-3.255447e-002 -3.979563e-001 3.905478e+000 0 122 103
-2.664006e-001 3.010618e-001 3.691219e+000 194 190 78
-3.303543e-001 3.359990e-001 3.653535e+000 4 224 197
5.376330e-001 5.927791e-001 3.853441e+000 91 183 122
8.496708e-002 6.965853e-001 3.660717e+000 30 24 106
3.286769e-003 -9.666274e-001 3.831226e+000 223 176 95
9.420993e-001 -8.795879e-001 4.179458e+000 227 209 6
-7.150296e-001 -7.956285e-001 3.608299e+000 29 164 216
6.014210e-003 -8.750196e-001 3.861295e+000 82 78 15
2.793805e-001 -8.659292e-001 3.960781e+000 221 178 41
-3.714676e-001 -2.078709e-001 3.764265e+000 206 243 179
1.618089e-001 -3.843822e-002 3.936857e+000 151 114 120
1.095581e+000 2.163769e-001 4.139348e+000 20 234 90
0.000000e+000 0.000000e+000 0.000000e+000 0 255 0
0.000000e+000 0.000000e+000 -5.000000e-002 255 0 50
9.056057e-001 -2.498485e-001 3.427157e-001 255 255 0
9.198083e-001 -2.537963e-001 2.949381e-001 255 0 50
